# 3D point list with one line of data per point:
#   POINT3D_ID, X, Y, Z, R, G, B, ERROR, TRACK[] as (IMAGE_ID, POINT2D_IDX)
# Number of points: 371, mean track length: 4.0914151517787252
9051 -0.46117982625077819 1.5488634854685999 0.77658787994229983 192 161 102 1.3893172364521129 37 1613 40 6770 73 3353 75 2822 78 3355 79 3009
9052 -1.0585084559368554 1.5726139096078999 0.6814182797934889 198 168 111 0.74659864957968902 37 1838 40 6777 39 4440 41 6244 45 6771
9053 -1.0585084559368554 1.5726139096078999 0.6814182797934889 198 168 111 0.74659864957968902 37 1839 40 6778 39 4441 41 6245 45 6772
9054 -0.98418861091421439 1.5634635870207934 0.7081377747128339 245 222 174 0.76134873164168404 37 2006 40 6779 39 4018 41 6247 45 6773
9055 -0.58797227302697119 1.5430902865060152 0.83735707787902203 196 163 110 1.0408031223834153 37 1832 40 6786 41 6278 38 1546
9056 -0.58764007371596416 1.5379118933710678 0.84220449830946631 196 163 110 1.6745598074746124 37 1833 40 6787 39 4051 41 6279 38 1547 73 3184 75 2837 32 2006
9057 -0.73763846252035759 1.5346106282301717 0.84231501434765388 200 171 115 0.9210599288124165 37 1843 40 6794 39 4057 41 6291 45 6804 73 3373
9058 -0.73497669168607149 1.5605739927048516 0.83763645893005378 247 217 157 1.1428952469012907 37 1844 40 6802 39 4459 41 6716 45 6809 38 1714
9059 -0.50103424904722971 1.5053506043548064 1.0359208864102121 205 175 115 0.92226834223313359 37 1645 40 6831 39 4142 41 6355 45 6099 38 1578
9060 -0.50103424904722971 1.5053506043548064 1.0359208864102121 205 175 115 0.92226834223313359 37 1646 40 6832 39 4143 41 6356 45 6100 38 1579
9061 -0.66963334613543413 1.5151932134101609 0.99549161569614486 253 227 184 0.42869239589130581 37 1849 40 6835 39 4473 41 6739 45 6860
9062 -0.41724627365568856 1.5142375432621724 1.1880553066116311 245 214 155 0.53695844409733673 37 1859 40 6871 39 4208 41 6420
9063 -0.49620265106396955 1.4792203929133032 1.1983410499594125 249 226 173 0.6658693959643941 37 1861 40 6872 39 4505 41 6419 45 6931
9064 -0.34765989378048184 0.19714494120628898 -0.27949246773659209 53 79 112 1.0579303984457924 37 1890 40 6900 39 4299 45 7156
9065 0.031825592170081518 0.40976400839589411 0.067317622160466328 35 38 43 1.1288311883414144 37 2059 40 6912 41 6547 45 7175
9066 0.44452332280466539 0.53672436838783433 0.085062324314987059 61 87 120 0.98406613694845846 37 1917 40 6922 73 3245 74 3011
9067 0.057720153822325426 0.67103325321912022 0.14847759004801403 30 29 34 0.88292842585727283 37 1753 40 6930 39 4331 41 6570 45 7200 38 1621 73 3427 74 3019
9068 0.16973258397750074 0.98819805922069903 0.24188521751355641 84 104 127 1.2546261263934722 37 1934 40 6939 39 4588 41 6882 45 7564 38 1633 73 3435 74 3244 72 2708
9070 0.35546004782301549 1.0271958380512964 0.24918763362535162 90 74 56 1.3647732388705156 37 1497 40 6941 39 4591 41 6883 45 7738 73 3543
9071 0.11661478572843986 1.1870673340804565 0.35164310104947977 71 102 130 1.5869881194540809 35 1191 37 1943 40 6950 39 4602 41 6599 45 7228 38 1638 73 3276 74 3347 75 3050
9072 0.059658984747162358 1.1854854491415112 0.3416057369483711 53 52 50 0.91593350130764217 37 2099 40 6951 39 4601 41 6895 45 7573 38 1774 39 4750 73 3443 74 3060 75 2735
9073 0.17219453552441638 1.4138608291945354 0.35769480514236857 82 101 118 0.57562497652372102 37 1952 40 6964 41 6902 45 7581 38 1782 71 1947 70 1999
9074 -1.0145990304374011 1.7126472875675516 -0.05581231852055657 227 200 156 0.53644725559836359 34 1386 40 6972 45 7247
9076 -0.74317015735146497 1.6582521300644029 0.27110652357003673 232 201 154 0.46541051737032751 35 1574 40 6980 41 6927
9077 -0.14166430312701411 1.6008296192825677 0.55139597165532317 224 191 146 0.41923376257808842 37 1804 40 6985 39 4637 41 6667 45 7287
9078 -0.1432365518311797 1.59723776700165 0.55449095100248891 224 191 146 0.34671706382504597 37 1805 40 6986 39 4638 41 6668
9079 -0.99697959368972966 1.6353317509076681 0.40625569275692092 201 166 108 0.59643613398150863 35 1452 40 6987 39 4397
9080 -0.83577243194884665 1.6103978706672371 0.49536790525400792 234 206 158 0.63380879895090125 37 1814 40 6990 41 6677 35 1451 45 7291
9081 -0.5519798901301266 1.5832566000100001 0.62830051668874343 229 198 141 0.96935166323973598 37 1816 40 6995 39 4643 41 6683 45 7298 38 1680
9082 -0.74994668626180294 1.5789389262191256 0.63354394301396888 192 159 105 0.44943008025155207 37 1997 40 6998 41 6687 45 7303
9083 -0.74994668626180294 1.5789389262191256 0.63354394301396888 192 159 105 0.44943008025155207 37 1998 40 6999 41 6688 45 7304
9084 -0.60359851592052116 1.5554232504275931 0.77617117193324181 239 213 164 0.31010157049447284 37 1829 40 7006 39 4655 41 6703 45 7315
9085 -0.61735022234145931 1.547889873158699 0.77908690038034534 250 222 174 0.59294844984438255 37 1830 40 7007 41 6704 45 7316
9086 0.34456049949779405 1.5049328014578527 1.0511776763091059 231 201 152 1.4566504381405461 37 1821 40 7013 45 7337 38 1695
9087 0.41181661533855557 1.4916548328334625 1.2168414171226913 186 155 98 1.3255746403846362 37 2003 40 7034 39 4788 41 6960 38 1831
9088 -0.10041376434152566 -0.047922812067185801 -0.57421772150099448 44 75 109 1.3470968377267558 37 2152 40 7059 39 4801 41 6839 38 1722
9089 -0.10882764808267612 -0.053141738513961499 -0.40589698650716677 66 103 135 0.1134249048454191 37 2038 40 7061
9091 -0.34714894108476185 0.41420645507097709 -0.28213428259552897 55 57 56 1.4108701169155426 37 2051 40 7067 41 6534 38 1859
9092 0.45551885207536108 0.57297548412194188 0.074151940782365894 71 98 129 0.66245793604947212 37 2070 40 7083 39 4727 45 7729 38 1751
9093 0.33602176980770221 0.67681989033188195 0.16186324306541339 212 244 255 0.98567823965346602 37 2079 40 7088 39 4730 41 7029 45 7733 38 1868
9094 0.42449267279970676 1.2256033951295584 0.23834076938955739 20 19 13 1.4248163397343394 37 2182 40 7101 39 4746 41 6891 45 7221 38 1878
9095 0.27779196951572788 1.5055219716283685 0.25586180091039051 65 58 52 0.31301993379104343 40 7116 39 4830 38 1886
9096 -1.1631314559668751 1.7046193032483847 -0.027175089808368358 195 164 104 0.69315210316388265 33 1988 40 7123 39 4760
9097 0.010302115589151395 1.5955007688649763 0.46298916423002151 74 109 137 0.60878939335958537 35 1567 37 2125 40 7132 39 4772 41 7068 45 7769
9098 0.0038581810366440927 1.6752514090157162 0.38793294963397656 97 136 165 1.568964995399466 35 1569 41 6929 40 7133
9099 -0.020438177553614767 1.6144845450301126 0.50093307711983703 211 180 116 0.52041175276469709 33 1911 40 7140 45 7771
9100 -0.8490949630896576 1.6172582104419049 0.52904877143619489 233 204 160 1.243739110853169 35 1656 40 7142 39 4773
9101 0.66051868066715613 1.536384584293953 0.98755158145729038 222 195 147 1.0167994621194436 37 1992 40 7147 39 4653 41 6948 45 7611
9102 -0.075218711787367165 1.5206003189854349 0.97599645633327059 233 202 140 0.64753999203506529 37 2132 40 7150 39 4782 38 1824
9103 -0.072751708522046543 1.5266964502106324 0.97206654636604961 233 202 140 0.8767801694417765 37 2133 40 7151 39 4783 41 6952 38 1825
9104 -0.20848929650351106 1.5157520098307493 1.0177049484997269 227 200 142 0.80489561837290913 37 2135 40 7154 39 4784 41 7076 45 7777 73 3594 75 3096
9105 0.28894959657710834 1.51854746126903 1.1479753523360903 245 214 167 1.0216237408203701 40 7155 39 4787 41 7078 45 7782 38 1908 72 2748
9106 -0.4379479052622382 1.5121560256306175 1.0160513082777825 203 168 104 0.42712125717435762 37 2138 40 7156 39 4785 41 6957 45 7778 75 3100
9107 0.41375286706715403 1.4953421265053743 1.2141269785298365 187 156 99 1.1950301215917982 37 2004 40 7158 39 4789 41 6961 38 1832 73 3345
9108 -0.42584520887909183 1.5145994279663704 1.0409977094506853 247 217 167 0.39257299921231753 37 2007 40 7159 39 4673 41 6958 45 7624
9109 -0.33148498563783807 1.5039405874508103 1.094367519198189 204 168 105 0.89729153679462914 37 2141 40 7163 41 7080 38 1839
9110 -0.33584150202522484 1.4922517577659435 1.1022716602377167 204 168 105 0.44588628581237133 37 2142 40 7164 38 1840
9111 0.27169265077141364 -0.054505385872034719 -0.57687105553609297 26 34 51 1.2652752476850961 37 1883 40 7173 39 4800 41 7100 45 7921 38 1845
9113 -0.25930098316131522 0.36875953438623499 -0.061703272522649857 19 22 27 0.57078285161468489 37 2163 40 7185 39 4712 41 7010 45 7719 38 1860
9115 0.49120646212143887 1.2977372097550357 0.19713352762029024 130 109 83 0.8801969952983334 37 2184 40 7202 39 4892 41 7128 45 7954 38 1939
9116 0.49120646212143887 1.2977372097550357 0.19713352762029024 130 109 83 0.8801969952983334 37 2185 40 7203 39 4893 41 7129 45 7955 38 1940
9117 -0.34217074142651899 1.5217906420863803 0.24677388124590954 61 56 47 1.6431947059806717 37 2275 40 7220 41 7055 45 7865 38 1956
9119 -0.28947369213906854 1.5463468222454106 0.82281951128904329 229 199 140 0.91723835006502163 37 2131 40 7236 39 4779 41 7074 45 7776 38 1907 73 3490
9120 -0.46158247914863848 1.5053202137864046 1.044439312602879 247 220 165 0.7719013390418783 37 2222 40 7237 39 4852 45 7781 75 3178
9121 -0.59968187954901531 1.5174061154050189 1.0433437780507799 233 202 142 0.37038592269682519 37 2284 40 7239 39 4855 41 7164 45 7888
9122 -0.59968187954901531 1.5174061154050189 1.0433437780507799 233 202 142 0.37038592269682519 37 2285 40 7240 39 4856 41 7165 45 7889
9123 -0.31126930283073634 0.28838313335068699 -0.1526518676694831 44 65 88 1.1183440388293553 37 2233 40 7251 39 4808 41 7008 45 7826 38 1920 73 3673 74 3533 75 3243 79 3400 78 3757 77 2575
9124 -0.28278260865332855 0.26982202110695752 -0.08567239798108546 39 59 82 2.1008527220900666 37 2234 40 7252 38 1921 73 3607
9125 -0.032316895796016876 0.40743225410519668 0.065882836025126207 66 85 115 0.73696096243406195 37 2240 40 7256 39 4876 38 1926
9126 0.10730867144481671 0.65282322212026722 0.14421395201116322 60 56 46 1.2441998407111003 37 2246 40 7262 39 4882 41 7201 45 7945 38 1931 73 3685
9127 0.048322793037529621 0.69067714878806075 0.16668690648749751 49 57 70 1.2026821205854301 37 2249 40 7264 41 7202
9128 -0.17335699846409286 0.6750074306559497 0.30785155615904003 109 125 140 1.0050378909894855 35 1686 40 7269 39 4887 41 7204
9129 -0.22350714791412571 1.1678674686593673 0.26844332404180171 83 85 80 1.0715724270553868 37 2260 40 7273 39 4894 41 7208 45 7953 38 1943
9130 0.158966808967753 1.3310045027147261 0.27052747282207434 82 73 56 0.97196478564960653 37 2188 40 7275 39 4896 41 7211 38 1944
9131 -0.40903839120560226 1.2669895672335094 0.30743842863028592 46 52 59 1.4870647717474723 37 2190 40 7276 38 1884 41 7045
9132 -0.30173943115795904 1.4823817528353447 0.19993080813510505 70 63 55 1.4016540221243865 37 2269 40 7278 39 4899 41 7136 38 1951
9133 -0.24596502133548853 1.449926222393946 0.25040184441480917 72 63 48 0.47124853458545674 37 2199 40 7279 39 4832
9134 -0.37545078803016274 1.4803004458192262 0.2106022166742551 88 100 114 1.211364823574673 37 2270 40 7280 39 4900 41 7215 45 8021 38 1952
9135 -0.49334527676375417 1.6659363898351445 0.061772792681156985 68 92 115 1.0289916335293277 37 2278 40 7284 39 4835 41 7144 45 7863
9136 0.11493884649311048 1.4749344837136675 0.40418485868074822 80 91 93 0.63341315273521204 37 2272 40 7286 41 7219 45 7965
9137 0.3361338020393802 1.6361696281256821 0.36024905598138074 215 182 120 0.75783326014673358 37 2205 40 7288 39 4843 41 7067 45 7767 38 1958
9138 0.22792040995147916 1.6177766186852589 0.48173784929712121 225 192 125 0.38005644432569069 37 2282 40 7291 39 4908
9139 -1.0136151391933343 1.6436057337630399 0.34809228801661846 232 208 162 0.86031837444249182 35 1754 40 7294 39 4909 41 7221 45 7879
9140 0.41012955642319077 1.5150051297577891 1.0530899708915942 227 203 157 1.0536413751779805 37 2215 40 7297 39 4911 41 7161 45 7886
9141 0.41132803397369549 1.5170274640266217 1.0509950140455495 227 203 157 1.0893214029952338 37 2216 40 7298 39 4912 41 7162 45 7887 38 1964
9142 0.43093731379077599 1.4829267001941253 1.2739853888571193 227 202 154 1.4440046532302917 37 2217 40 7300 39 4857 41 7167 45 7891 73 3592
9143 -0.18138979397751104 0.0018269963114900326 -0.53099436786821996 94 120 153 1.3165466360742102 37 2293 40 7304 39 4917 41 7229 38 1977
9147 0.35470802074691293 1.486878615254795 0.098217893905371945 37 36 35 0.59187502919050505 37 2262 40 7325 39 4937 41 7258 45 8018 38 2000
9148 0.75364062527235798 1.6687414118829671 0.26872983695972724 218 190 143 1.1072256099929725 37 2323 40 7330 39 4969 38 2037
9149 -0.23501121225820476 -0.013592028930582305 -0.52079751282806463 32 53 82 1.2923643458967653 37 2331 40 7339 39 4946 41 7270 45 8042 38 2013 73 3756 74 3570
9150 0.42299728430204647 0.54652124435734595 0.0052942616304242907 196 175 132 1.3791999277456641 40 7364 39 4931 41 7247 38 2025
9151 0.048906827539999198 1.1528298431092163 0.27296354620954649 66 87 120 1.0939332628809271 37 2341 40 7370 39 4936 38 2033 74 3612 75 3313
9152 0.11337953529537909 -0.53669583751437089 -0.57673215910554321 57 95 131 1.5540785422114376 37 2347 40 7379 39 4975 41 7303 45 8068 38 2041 73 3776
9153 0.11337953529537909 -0.53669583751437089 -0.57673215910554321 57 95 131 1.5540785422114376 37 2348 40 7380 39 4976 41 7304 45 8069 38 2042 73 3777
9154 0.024048015742748119 -0.35867965212797714 -0.52301786819567808 72 111 145 1.065976534594582 37 2349 40 7381 39 4977 41 7305 45 8041
9155 0.24762238528753783 0.53339182095532411 0.039927538333667578 25 39 50 1.811083922185214 37 2354 40 7391 39 4991 41 7315 45 8084
9156 0.32776115009976431 0.60801068191776653 0.09751643159246709 11 19 25 1.433185473212534 40 7392 39 4992 41 7316 45 8085 38 2054
9157 -0.48648809999054909 1.7123020150672352 0.1541131891834962 217 182 128 1.7195463330358898 35 1807 40 7400 38 2064
9159 -0.22732952077713692 -0.11689468944075004 -0.58383798569027889 182 201 234 0.18767197709088568 40 57 39 34
9160 -0.22853807744505 -0.124607047894188 -0.55623356195290363 90 118 147 0.21214196850092779 40 58 39 36 41 50
9161 -0.21453985533223352 -0.10538329147173155 -0.59447916774462506 118 148 179 0.61003052029590077 40 60 39 37 41 51
9162 -0.30073306642532277 0.066840665528608526 -0.38418417034775676 96 131 161 0.89755838442223712 31 635 32 48 40 151 39 84 45 163 73 1494 74 1474 75 1124 79 2023
9163 -0.32678869334362615 0.2937888724111839 -0.05836249862045588 52 63 81 0.35609896189459717 40 2924 39 144 38 529
9164 0.33360135831817855 0.38644543495772454 0.05598683070311225 138 175 209 0.59391532963865834 40 287 39 177 45 284
9165 -0.3506160823463238 0.47509932185927661 -0.074601037916424418 24 35 55 0.20415325830492903 40 2964 39 197 41 3183
9166 0.15395154163553271 0.50756685398028845 0.05877337944733349 56 77 100 0.57629497689803344 40 2999 39 227 73 323
9167 0.03305452444792728 0.50158623155540838 0.15511791283017573 49 89 119 0.37318405730992954 40 377 39 250
9168 0.11390906916898325 1.1823354688767624 0.33881306333221523 30 40 52 0.45001854877390923 40 3144 39 338 41 3340 74 1683
9169 -0.49406049603152485 1.7015700835344911 -0.076473797285717293 199 168 125 0.40854588329951003 32 878 39 362
9170 0.62907938312736822 1.660623372421927 0.2174410515311076 146 126 92 1.9563207779038123 37 240 39 385 41 5112 45 5587 39 3064
9171 -0.029271119864646977 1.4224710954585362 0.37319803799255086 122 142 163 0.49590145864360635 40 720 39 393 73 1837 74 1797 75 1406 78 1690 79 1654 77 1126
9172 -0.083607387303911707 1.4530186879020843 0.35150665941897358 33 55 76 0.60203714295678001 40 728 39 400 41 889 73 1849 75 1419 78 1711 79 783 77 542 71 738 70 1124 69 503 68 577
9173 -0.58153186665910694 1.6503442996650293 0.15982713262689535 194 163 108 0.61108524012447196 40 3281 39 428 41 1027
9174 -1.1831170338622143 1.6861567502714263 0.038001726101191236 229 200 145 0.27309656737432708 32 1113 39 429 31 989 41 1006
9175 -1.1827326703372363 1.6868225576925984 0.037312982771765646 229 200 145 0.32881245061334219 32 1114 40 774 39 430 31 990 41 1007
9176 -0.1919712506128938 1.5687925945657741 0.30092726320820679 86 119 150 0.49938253774831004 40 3277 39 431 45 858 73 1927 74 2497 75 2066 78 2489 79 912
9177 -0.96973168867644399 1.6775758815841451 0.085382238331201787 189 159 109 0.32020970026555257 32 1048 39 435 31 409
9178 -0.69342962974084688 1.6462465357553124 0.28042908868384753 187 156 100 0.4653411417115913 31 935 40 3416 39 510
9179 -0.37361040545199775 1.6234818152532058 0.43139512973769351 227 187 126 1.1058833519017703 37 469 40 3487 39 557 41 1551 45 4091 71 1443 70 1506 69 1588 68 1723
9181 0.18283145730331057 1.6098835885123719 0.53216465616750197 200 166 102 0.69562836800352146 40 5136 39 562 41 1590
9182 -0.26059384507331446 1.6071598959701161 0.5204224895973395 231 200 148 0.34261093106050383 40 1139 39 592 41 1725
9183 -0.059173026036645149 1.6246120734125182 0.54179270059224716 191 157 105 0.50081385026355529 40 1144 39 595 41 1773
9184 -0.042978391425882778 1.6064302511207873 0.56489083958778052 201 166 109 0.29964397392698755 40 3588 39 603 41 4009
9185 -0.21518264186139169 1.6154459909409677 0.53486635642667291 224 190 140 0.15350748207810749 40 3606 39 610 41 1785 45 1495
9186 -0.52283472459364222 1.5995063785193038 0.52812680734835848 195 158 96 0.19045934843520299 40 1266 39 638 45 1548
9187 0.20162884688055988 1.5998908974541113 0.6479332690136872 225 191 130 0.41954015436579711 40 3648 39 647 45 1622
9188 -0.5269472672924066 1.5997403363688525 0.53490528908866941 231 201 139 0.51228255372981424 40 1291 39 649 45 1570
9189 -0.52437786255218266 1.6009196756683217 0.57627480856669289 207 174 120 0.32208301175322857 40 3750 39 682 41 2053
9190 -0.52740473065381677 1.5843774705777602 0.59902781552760342 232 200 146 0.52411179461555635 40 3774 39 696 41 2080
9191 0.12825660564617147 1.5740976032693721 0.74960811148661577 222 186 124 0.22234451550701612 40 3821 39 746 41 2195 45 1933
9192 0.12587239191650001 1.5682737765626251 0.7541981237719817 222 186 124 0.20564224683400992 40 3822 39 747 41 2196
9193 -0.68674515644085954 1.587327208458402 0.61181019478204601 243 213 170 0.20643360368960922 35 667 40 1601 39 754 41 2163 45 1877
9194 -0.68667976624855454 1.588038869882072 0.61124182694095253 243 213 170 0.23643096761757076 40 1602 39 755 45 1878 41 2164
9195 -0.31485264442239447 1.576280305328452 0.68589464583036697 209 174 110 0.28911092303798303 40 3860 39 765 41 2197 45 1926
9196 -0.60739820271874789 1.5785303734302079 0.63982113063042489 234 205 153 0.10925304500906714 40 1624 39 770 45 1898 41 2186
9197 -0.76772826854686382 1.5800290766656857 0.61672332987517398 241 209 160 0.23586103475684214 40 1654 39 775 41 2187 45 1899
9198 0.31668778590246321 1.5700228286962228 0.81263977062785075 186 156 108 0.30181871230493157 40 3880 39 795 45 2032
9199 -0.50135772874661488 1.5759133654009185 0.69072243000631328 241 209 158 0.36161373894000154 40 1726 39 824 45 2017
9200 -0.69953199382518494 1.5709034840182654 0.66309129067182737 229 197 145 0.25317075591380034 40 3955 39 827 41 2278
9201 -0.78431578287872195 1.5663078205037515 0.68521140029986127 216 186 139 0.24229592026355895 40 1835 39 890 45 2085
9202 -0.47171501994040382 1.5557174090445394 0.80635552633467844 241 208 157 0.30010597753455098 40 2040 39 987 45 2288
9203 -0.65817743124330197 1.5622852134665446 0.77407205665674805 249 223 179 0.45187439662294854 40 4152 39 994 41 2581 45 2290
9204 -0.35815479467934863 1.5671872114838719 0.83436737492114377 237 205 147 0.092130544609745624 40 2112 39 1021 41 2611
9205 -0.61441984849739983 1.536272134829463 0.89090124017407279 216 187 142 0.5524856660043026 40 4333 39 1125 41 2712
9206 -0.21946060567224773 1.5265869901876179 0.97056014866695084 234 202 145 0.50665494575011227 40 4329 39 1136 41 4604
9207 -0.21413109543656664 1.5481424691365995 0.96187622636053538 205 173 115 0.48623291739198637 40 4345 39 1146 41 4614
9208 0.60375771584306559 1.5340911146727481 1.121535661286998 192 159 106 0.61979645745623535 40 4331 39 1173 41 4649 45 4851
9209 -0.76504233551135314 1.5285151964436334 0.96275976325125323 253 228 174 0.20000041953535228 40 5705 39 1272 45 4904
9210 -0.78180055376076252 1.5060180944799926 1.0404883917952692 251 222 171 0.37749277107999069 40 4603 39 1373 45 2908
9211 -0.31214361267413337 0.040198050902432378 -0.30786051940608006 13 37 67 0.64209680559521198 40 2877 39 1625 41 3132 45 164
9212 -0.19064202062306446 0.3633805306655058 0.039423738050873791 110 144 175 2.2195432255631027 40 2948 39 1669 41 3173 45 275
9213 -0.024695306759069724 0.4405045883047507 -0.0098565196882067774 25 28 43 0.39040807203144695 40 4778 39 1678 38 1122
9214 -0.2687127666394688 0.3015742228135021 0.20682720611751976 110 157 192 0.98422168634654961 40 2958 39 1682 38 541
9215 -0.34941416367957367 0.33805272064499114 0.19415213511228879 120 162 200 1.5807099410795857 40 4791 39 1690 38 863
9216 0.21738184435096214 0.54150218673590211 0.019567026547930022 57 74 95 0.63581137725907422 40 3002 39 1703 38 555
9217 0.30366046940250607 0.58201898931785356 0.077434653427301853 44 56 64 0.78425824988846704 40 384 39 1727 45 3565
9219 0.25875819831869579 0.64117572399023715 0.18179730980706188 80 114 149 0.11575767447531686 40 4849 39 1744 41 3221
9220 0.25231037876801238 0.70151600483055643 0.16752934875669712 197 238 255 0.77439263769013755 40 3073 39 1754 41 3227 38 888
9221 -0.5097625642149517 0.69884508934786749 0.13048861930814482 156 190 205 0.85519058957996819 40 3083 39 1760 45 392
9222 0.034705287726067902 0.78382431515873818 0.19190464490754333 57 57 61 0.80993182948335962 40 4862 39 1770 41 3243 45 3608 72 2259
9224 -0.25941588751234967 1.0826283587375432 0.32161660936593389 41 39 32 1.0732419834632554 40 3136 39 1794 38 913
9225 0.06807462216969079 1.3953680087209714 0.37470480726268746 103 142 173 0.39795644401045943 35 787 40 3195 39 1817 41 793 33 693 45 3741 37 1200
9226 -0.070169099395737899 1.4109258267407816 0.34943427415576184 82 116 144 0.48229635001193205 40 691 39 1823 41 3475 45 667
9227 0.014751645585652118 1.4086310652854543 0.37690799292665728 56 93 119 1.0929584990459489 40 3203 39 1824 41 3484 45 3753 38 626 74 1776 73 1828 78 722 71 1344
9228 -0.5986235971058691 1.6892129122750903 0.029870567168471224 203 167 115 0.41608315917566624 40 3233 39 1836 45 3783
9229 -0.64513563824019893 1.6821361901747665 0.052830973477701604 199 169 125 0.21982347488079182 40 3248 39 1844 41 3533
9230 -1.0321736739938634 1.695218700028208 -0.018353436950717505 228 201 159 0.45176554167657751 31 1388 32 1463 40 4968 39 1845 41 3519 45 3791
9231 -0.087242548620207583 1.4572186658472484 0.3567697929392028 158 179 198 0.58510897113110993 40 3238 39 1846 41 3539 45 3789 73 2549 74 2842 75 2036 78 2905 72 1940 71 1359 70 1424 69 1538 68 579 65 829
9232 -0.49460079026872461 1.6665620323513792 0.1222235035553712 165 143 100 0.46780545928885525 40 3259 39 1852 41 956 45 785
9233 -1.0237036911492534 1.696431515313497 0.051711526523352397 203 174 125 0.31150687912983982 34 815 40 3297 39 1867
9234 -0.87281524122965948 1.6794757268777658 0.090963532959368654 201 169 118 0.75930857906363547 32 1031 37 875 39 1869
9235 -0.72745137591116127 1.6701282849611856 0.14548616125735142 199 169 115 0.45577836231921753 34 806 40 3314 39 1875 45 885
9236 -0.59691084410807949 1.6350722108780589 0.20951911595772604 224 193 145 0.38053719168791789 40 3323 39 1877 41 3647
9237 -0.66197980294725189 1.6606086011764827 0.19913572908142269 236 203 157 0.31408898934325458 40 3347 39 1885 45 942
9238 -0.022984857220569421 1.5467122017509352 0.41223964125388096 98 137 170 0.25211609816462893 40 5032 39 1892 41 3714 45 3941
9240 -0.73838240519193077 1.650368810651331 0.24809106883949916 236 206 156 0.36303114420576266 40 5074 39 1906 41 1279 45 1029
9241 -0.75268629381206953 1.604417143783976 0.29950978096630732 199 171 121 0.71738971144598729 40 3406 39 1909 41 3762
9242 -0.73508540906584341 1.6413514458142344 0.26842304205030809 183 155 107 0.32957850639715613 40 3404 39 1912 41 3765 45 5662
9243 -0.73508540906584341 1.6413514458142344 0.26842304205030809 183 155 107 0.32957850639715613 40 3405 39 1913 41 3766 45 5663
9244 0.4898913312613094 1.6451046493477313 0.45464682954492525 198 165 112 0.49811750611932148 40 3381 39 1916 41 3798
9245 0.030791501905879315 1.5848249071458598 0.45329799976447477 48 70 90 0.42925604570749715 40 3400 39 1922 41 3796 45 4024
9246 0.07380001839203626 1.5869227702768538 0.46634958060548587 75 97 120 0.31208971168140548 40 3412 39 1935 41 3808
9247 -0.47464466112902282 1.6178291031338603 0.36285947073516861 186 153 99 0.83436829973175242 40 3439 39 1940 41 1405
9248 -0.43476898523401364 1.6259243217241273 0.39618591038704359 177 149 84 0.29567177019675767 40 3466 39 1956 45 1237
9249 -0.43891572863138251 1.6258954440902589 0.40671871319972269 220 190 130 0.49984368599991696 40 5135 39 1960 38 666
9250 -0.35887971115937467 1.6174515769773212 0.4364545284871843 227 192 131 0.27172676892726205 40 5140 39 1968 41 3889 45 4090
9251 -0.69373927387694057 1.6264659615121744 0.37721792549619021 208 178 128 0.36460597457759292 40 3500 39 1970 41 3876
9252 0.20729837395795897 1.6197562670510162 0.5252220016148661 183 152 96 0.2180147535638465 40 3477 39 1974 41 1587 45 4123
9253 0.20729837395795897 1.6197562670510162 0.5252220016148661 183 152 96 0.2180147535638465 40 3478 39 1975 41 1588 45 4124
9254 -0.29196049976037808 1.6250336920645114 0.44643955172539068 200 169 105 0.3140774751090582 40 3496 39 1981 41 3902
9255 -0.59312409496561391 1.6071135795606992 0.44699011742051414 234 203 152 0.2508599462833323 40 5180 39 1991 41 3939 45 4141
9256 0.12566171136797877 1.6112440398491612 0.56488778247443938 185 155 91 0.42651453019263891 37 907 39 1995 41 3981 40 3541 45 4178
9257 -0.50208953635677889 1.6078827995102329 0.47958052321439121 231 201 147 0.31448908584258523 40 3580 39 2003 41 1703 38 685
9258 -0.60336275505311288 1.6099021553995481 0.46012983985002859 233 202 150 0.22760200771125702 40 3582 39 2005 41 1693 45 1417
9259 -0.61783833824149959 1.5996449020667616 0.47510890633482511 236 203 157 0.4307663584283779 40 3595 39 2011 45 1433
9260 -0.024798672749722916 1.589253107909935 0.5894739587079092 208 172 110 0.38887018043095489 40 5207 39 2021 41 4022
9261 -0.40214087545949784 1.5999965371602232 0.52611521212347667 229 193 136 1.9781893935479704 40 3617 39 2028 73 2222
9262 0.021957312120786665 1.5984319659302881 0.59139361010246883 224 189 131 0.36893956898493896 40 5211 39 2029 41 4025 45 4228
9263 -0.56837887791722319 1.6094508083693408 0.49831032745439668 195 166 108 0.33500151016642477 40 1228 39 2036 41 1808 45 1504
9264 -0.24547881779987402 1.5959070231533323 0.56665434790081859 183 152 85 0.25370357200922411 40 5227 39 2039 41 1857 45 1541
9265 -0.3370876360919331 1.594749956273608 0.55841640303338691 233 202 155 0.22501612337274732 40 3651 39 2041 41 1873
9266 -0.37062324765937782 1.6082313010316649 0.55107713960032889 228 193 137 0.55303074395092167 40 5243 39 2051 41 1917 45 1582
9267 -0.3754484048143038 1.5909879147600827 0.57503137499713119 178 144 87 0.26847702960041714 40 3691 39 2062 41 1946 45 4266
9268 0.16672022513312296 1.5810092149983817 0.67356243469226884 215 184 126 0.44701007633519657 40 3676 39 2064 41 4100
9269 -0.37691158160723137 1.6047496415829492 0.57077126101753506 222 187 131 0.66593423897010384 40 3705 39 2068 41 4091 45 1636
9270 -0.69745347208945008 1.5964801123903374 0.53797394337421811 231 201 154 0.12443535128145464 40 3725 39 2078 41 4095 45 1646
9271 -0.67120932745505257 1.6023164937030547 0.54825985092055318 241 207 162 0.21603776853449672 40 3751 39 2086 45 4309
9272 -0.59439256340300495 1.5938958796285732 0.58317039017493322 233 201 151 0.58706711722836269 40 3784 39 2102 41 2081
9273 -0.34504706270735447 1.5799199504635006 0.6370177298182067 185 154 99 0.19003134175836442 40 3778 39 2106 41 4150
9274 -0.34448893234643185 1.5816362930003893 0.63556710401558614 185 154 99 0.21214937204574982 40 3779 39 2107 41 4151 45 4340
9275 0.40015637497913054 1.5827374445504625 0.77005125807679042 228 195 144 0.41634107499524009 40 5288 39 2123 41 4193 45 4378
9276 -0.64556784285864732 1.5839286810585533 0.60397082981163486 244 216 169 0.26001100883382955 40 5316 39 2128 41 4175 45 4352
9277 0.39674797402254408 1.5967046078967584 0.76648237572439171 178 147 90 0.80300320723241037 40 5298 39 2143 41 4218
9278 0.27468159858237234 1.6049429751925333 0.74557735878154396 223 191 136 0.51594262765850152 40 5313 39 2147 41 4222
9279 -0.81774021577605938 1.5927399703578613 0.58102397476191792 243 211 166 0.61137068041672116 40 3867 39 2148 41 4181 45 4357
9280 0.11448068373785897 1.5735371404355474 0.74945164235799222 216 185 124 0.43289406113904638 40 3828 39 2151 41 2205 45 1934
9281 -0.52054153323396934 1.5845684012902499 0.64501955111316311 236 202 153 0.36900438116837658 40 3876 39 2155 45 1897
9282 0.037020672157952794 1.5775374215431097 0.74994497493860601 227 196 139 0.37566815030960976 40 3871 39 2160 41 4251 45 1980
9283 -0.52130481554043773 1.5826542198883369 0.65549786317850356 181 148 94 0.25623500685227141 40 3895 39 2161 41 4223 45 1936
9284 -0.52292350816061406 1.5750593737721055 0.66175295231397624 181 148 94 0.18004193611042527 40 3896 39 2162 41 4224
9285 -0.053455853825165378 1.5795497909513414 0.73389322301807369 224 190 132 0.44945963887795176 40 5332 39 2165 41 4247
9286 0.31759806671389795 1.5820435622979332 0.79466041959705014 227 195 146 0.41529364415258713 40 5328 39 2167 41 4263
9287 0.70934612926776164 1.5921804885856001 0.85943944250374105 186 156 105 0.50846540982291966 40 3858 39 2177 41 2342
9288 0.32948375255900492 1.5737842897019889 0.81356983483704171 191 160 113 0.51810531478989752 40 5337 39 2180 41 4281
9289 0.23710267366920507 1.5795328781690026 0.79642833823463621 192 163 105 0.89765180559578217 40 3894 39 2181 41 4286
9290 -0.47862805313359136 1.5774608825014764 0.68596594321321902 213 178 122 0.31127949727692922 40 5369 39 2188 41 4258
9291 0.80984772737424882 1.5421443145973852 0.93139064027318552 176 147 101 1.475752227071474 40 3883 39 2197 41 4331 74 2036 73 2040
9292 0.84032266452826976 1.5926913773064586 0.89160593626334461 176 147 101 0.69437562346814852 40 3884 39 2198 41 4332
9293 0.25112911553200795 1.5671659341810642 0.82543904554627234 228 198 144 0.3680638982980573 40 3915 39 2210 41 4318 45 4494
9294 -0.62912272610078279 1.5860082229797601 0.66841272664573448 212 182 132 0.50696164036705904 40 5389 39 2213 41 5455 45 4454
9295 0.082680425192778295 1.5635532634939986 0.80592632192922009 205 173 115 0.30051534410424857 40 5376 39 2217 45 4496
9296 0.45430926267663313 1.569917154123579 0.86564485765782417 223 194 145 0.42544235385578716 40 3937 39 2219 41 4344 45 4520
9297 -0.73376017287417472 1.5830884365852826 0.6725474432171441 245 215 169 0.59696770344691585 40 4002 39 2232 41 4315 45 4483
9298 -0.62964186001677092 1.5654549098296089 0.70723697453403767 187 158 104 0.051674234051521127 40 3998 39 2233 45 2081
9299 -0.28473360041472995 1.5590826821651762 0.77431564767720928 238 203 148 0.40376839830658168 40 3993 39 2242 41 2421 45 4516
9300 -0.46280609047815646 1.5688041631744245 0.74104407750160783 244 212 163 0.45923491839197589 40 4017 39 2254 41 4349 45 4517
9301 -0.29374343120103319 1.5495150470560459 0.79018271703811593 188 154 100 1.3917835902878721 40 4012 39 2256 45 2139 75 1741
9302 -0.73185175278818937 1.5651321914447331 0.70808521798062896 255 224 177 0.24451151137642194 40 4044 39 2258 41 4355 45 4518
9303 0.7142139477023377 1.5755657237307517 0.93668378646159223 219 189 137 0.76181035227205118 40 3986 39 2260 41 2534 45 2231
9304 0.44310153160222904 1.5819926088474154 0.89069214438631139 223 191 134 0.55014907674804725 40 3995 39 2261 41 2523
9305 -0.46989866539792058 1.5588702996880239 0.76600769976369065 233 199 145 0.21104610619436709 40 4057 39 2267 41 2473 45 4541
9306 -0.63364011980312362 1.567858089201861 0.73482340747132602 249 221 178 0.56464453226570865 37 1022 40 4071 39 2272 41 4383 38 1036
9307 0.19837499928854258 1.558305023146374 0.89173115939652803 230 200 148 0.33821094551548492 40 4061 39 2285 41 4433 45 4600
9308 -0.48877379549496186 1.5580372362862478 0.78085801680407396 247 219 165 0.22702807146130655 40 5455 39 2286 41 4406
9309 -0.14917209995184608 1.5543897473728732 0.84402308168247253 231 196 137 0.35705602389339386 40 1941 39 2288 41 2560 45 2255
9310 -0.37109075984161916 1.5545797273794213 0.80903169951381737 227 194 136 0.3601649913046574 40 4100 39 2297 45 2239
9311 -0.48960357042158076 1.539168888745309 0.80485229297286875 208 179 126 0.40457330012473119 40 4109 39 2298 41 4412
9312 -0.63214606744683965 1.5556430594790407 0.76787333644020528 219 195 150 0.48656405873485964 40 4117 39 2299 41 2541
9313 -0.12403712667721647 1.5575761664971506 0.87192230876550569 202 167 99 0.19476365639320783 40 5484 39 2329 41 4475
9314 -0.12403712667721647 1.5575761664971506 0.87192230876550569 202 167 99 0.19476365639320783 40 5485 39 2330 41 4476
9315 -0.54008778232604615 1.5476628015688667 0.81637441826398693 199 168 111 0.37013100451343778 40 4170 39 2332 45 2333
9316 -0.66419433255064297 1.5578814690381964 0.79255816876127438 253 229 185 0.37615601812290728 40 5513 39 2344 41 4470 45 4636
9317 -0.66419433255064297 1.5578814690381964 0.79255816876127438 253 229 185 0.37615601812290728 40 5514 39 2345 41 4471 45 4637
9318 -0.63589660068660081 1.5469246602117204 0.80853287341464841 223 195 149 0.26427837955768191 40 4192 39 2348 45 2348
9319 -0.2093118139187283 1.5658416384140317 0.86716331257286594 231 191 129 0.26266172247687558 40 4179 39 2352 41 4495
9320 0.043230821167799693 1.5459426366383648 0.93116886595021886 218 186 128 0.2757521046123409 40 4182 39 2372 41 4517 45 2420
9321 -0.51320069205214991 1.5532776702001081 0.83705092752821253 202 171 117 0.54504333159301144 40 4215 39 2378 45 2397
9322 -0.60279815566726858 1.5525172871464865 0.82467440629367172 190 163 117 0.23070718818272484 40 4231 39 2382 41 4503
9323 -0.59464991092201891 1.552616086780843 0.83475719211694632 237 207 159 0.34020303623842896 40 5542 39 2390 41 4519
9324 0.1599268680148031 1.5410227316758196 0.97957384694116567 203 174 118 0.46434204272402813 40 5535 39 2398 45 2493
9325 -0.75429437262903865 1.5563538387875293 0.81894781689908713 212 179 128 0.2421699380152075 40 4278 39 2402 45 4698
9326 -0.1552818411630317 1.5413037116586785 0.93851389440083777 228 195 141 0.49464099234918085 40 5551 39 2406 45 4743
9327 0.3348487534205456 1.5532548870940035 1.0203826747273832 179 151 99 0.22087552857134396 40 4270 39 2413 41 4591
9328 0.39770715067079404 1.5556332985426278 1.0366290509461324 221 192 143 0.36712145283456099 40 4279 39 2419 41 4603
9329 -0.40070243728250526 1.5374789988022379 0.91848339562814418 244 212 154 0.35472910901575827 40 5565 39 2423 41 4580 45 4751
9330 -0.5328123303037382 1.5358489327399445 0.90038356302359523 245 213 162 0.27609371950270972 40 2346 39 2424 45 4750
9331 0.36132195903437375 1.544951051255923 1.0486142020253637 215 184 132 0.23167642340329797 40 4294 39 2434 45 4801
9332 -0.015838629317305564 1.519259052636301 1.0074696564501817 180 150 90 0.92796889869893751 40 4317 39 2435 45 2577 37 1024
9333 -0.62105928727250026 1.5386688719287005 0.89516768577743888 255 223 179 0.36874395543766886 40 4354 39 2443 41 4594 45 4770
9334 0.41093100768032736 1.5397102590113767 1.0713332543012657 229 197 145 0.6819653262020634 40 4314 39 2448 41 4633 45 2619
9335 -0.5353816855853859 1.5429703733345912 0.9139097401950449 243 210 156 0.14942800335689316 40 5619 39 2451 41 4608
9336 -0.50438953412929832 1.5467908174240157 0.91777125947813709 249 215 156 0.30307730952279893 40 4367 39 2456 41 4609
9337 -0.49009273625110494 1.526823114645034 0.94086702531189625 246 215 164 0.24472107091865369 40 5620 39 2464 41 5690 45 6016
9338 0.57538680740704984 1.5391811476873163 1.1272003157260633 182 154 100 0.3990612769076029 40 5617 39 2477 41 4665 45 4873
9339 0.57538680740704984 1.5391811476873163 1.1272003157260633 182 154 100 0.3990612769076029 40 5618 39 2478 41 4666 45 4874
9340 -0.52690881799741773 1.514432427125282 0.97348736048123685 249 222 172 0.59109434351996726 40 4436 39 2497 45 4845
9341 -0.71302757892427238 1.5376084081791801 0.92559948580962237 234 203 152 0.42596034587568976 40 2523 39 2502 45 2663
9342 -0.69566175555738996 1.5302951027262028 0.96531354042745732 250 222 172 0.1399399120854723 40 5696 39 2543 45 2755
9343 -0.56372935433004401 1.5166779689282908 0.9988745456007122 253 226 183 0.1812434686167006 40 4480 39 2547 45 4896
9344 -0.25108378484810862 1.5168162902014828 1.0627758071500495 246 215 156 0.20191327317293836 40 5700 39 2558 45 4919
9345 -0.51435470156539975 1.5141354796462989 1.0249420802480083 213 183 132 0.39580822833125279 40 4497 39 2562 41 2855 45 2808
9346 -0.51435470156539975 1.5141354796462989 1.0249420802480083 213 183 132 0.39580822833125279 40 4498 39 2563 41 2856 45 2809
9347 -0.64695473461385888 1.52061367692621 1.0007453424842907 250 221 169 0.26352065991102908 40 2614 39 2564 45 2810
9348 -0.7331200899520558 1.5214598587719315 0.9895691559605142 223 192 143 0.38341467162810111 40 5720 39 2575 45 4921
9349 -0.50808438751454765 1.5134120293623528 1.0514389996584892 213 187 133 0.225105507776209 40 2659 39 2598 45 2861
9350 -0.55858053667930196 1.5150711314993133 1.0425501037405251 253 225 174 0.20320212486870348 40 5746 39 2602 45 4944
9351 0.4444884043233826 1.5131127697020321 1.2212203332664988 209 175 126 0.51060014420538724 40 4517 39 2608 45 4988
9352 0.30936997308537945 1.5093629813191771 1.2040756734420297 207 176 126 0.43208691550289807 40 4531 39 2613 45 4985
9353 0.13958074103837276 1.5072531163977421 1.1772586310767643 211 177 119 0.28395579057615489 40 5736 39 2614 45 4983
9354 -0.44424012023992809 1.5153544667155106 1.0734313301320213 213 182 123 0.39131124283379209 40 4571 39 2618 45 2891
9355 -0.72664522807312404 1.517836736170431 1.0284405045452965 252 228 178 0.31434086424947005 40 5770 39 2631 41 4727 45 4960
9356 -0.27032814596560645 1.5276570963532192 1.1245934118606489 245 218 165 0.091698450396975537 40 5791 39 2655 41 4755
9357 0.43169133307856028 1.493122670739444 1.2824577141432281 240 210 163 0.40674443688117562 40 5785 39 2669 45 6183
9358 -0.1663993543653374 1.5015684667597595 1.1880094109572041 205 175 121 0.3262439914715371 40 5828 39 2682 41 5803 45 5033
9359 -0.45145039784555763 1.5081136456599948 1.16533244191714 254 225 169 0.62022778399551892 40 4648 39 2719 41 4789 45 5070
9360 -0.48081673739403152 1.4846910281674848 1.1843903466617183 182 155 100 0.93994462545825697 40 5860 39 2726 45 6208
9361 -0.43655589261895617 1.5008736586751916 1.1827319209521812 194 162 111 0.60444071398520471 40 5866 39 2729 45 6211
9362 -0.68730430769653461 1.5049847308671003 1.1442454573506833 216 186 132 0.6371740924169802 40 5885 39 2744 41 2955
9363 -0.70482343355831112 1.4959439938480912 1.1482154759094731 214 183 125 0.22799209367914683 40 5887 39 2746 45 6212
9364 -0.72290170385427466 1.4964695939295019 1.1453093114553303 221 191 137 0.49469939845742195 40 5888 39 2752 45 5085
9365 -0.67977292216470542 1.4992957171980155 1.1651636025567096 221 191 141 0.2484296912503586 40 4672 39 2767 45 5107
9366 -0.23575001951947727 -0.052810393116039321 -0.65764920636858548 189 211 241 1.9114887212138558 34 673 40 2841 39 2869
9367 -0.34940497828583572 0.21659900366939874 -0.27846748944512056 214 254 255 0.65445983887283121 37 1709 40 4746 39 2891 41 3139 45 3485
9368 0.43245711714703244 0.26442296785976283 -0.093210478218351558 102 104 104 1.5571487951693379 40 2912 39 2898 41 5949
9369 -0.33758876965186035 0.37208228029805779 -0.097086425142623431 90 111 138 0.43225496887937842 40 2931 39 2911 41 3162
9370 -0.37606817897816497 0.4103989961991914 -0.1630085007008942 149 168 203 1.0585768422076312 40 2932 39 2912 41 3163 45 3508
9371 -0.38107374193941734 0.45609098373964763 -0.2131115559984906 233 251 255 1.8013506570179214 32 1870 39 2913 31 1851
9372 -0.20254606271524198 0.31685261579225688 0.04091848523978539 23 37 48 0.51915797007385212 40 4760 39 2918 38 844
9373 -0.27749517256400169 0.36474386157089833 -0.018811454837350944 71 78 89 0.55156090065115815 40 4764 39 2919 38 1396
9374 -0.28512716397522647 0.43508110476147055 -0.11475246308590555 91 110 136 0.40489585669941902 37 1471 39 2922 38 1117
9375 -0.37497114591509401 0.54828042418270251 -0.1822230496446354 136 136 144 1.1947012068379699 40 5978 39 2933 45 6538
9376 -0.25248545845712977 0.36195743707502881 0.12669243734009195 100 146 181 1.4659799220545167 40 4779 39 2934 41 3184 45 5427 38 854
9377 -0.36626356918083369 0.38286801879159116 0.1426414676800275 65 103 139 1.2752850311229531 40 4797 39 2940 38 1130
9378 0.12002726131225355 0.53635343052025852 0.14741731039116351 16 25 42 1.7475353787566164 40 4822 39 2962 41 5986 38 573
9379 0.35632684522799379 0.62959909178126028 0.13898623672446786 55 106 145 0.70213471285703122 40 4839 39 2970 41 3212 45 3575 38 1142
9380 -0.2061918814011981 0.51894056940659983 0.2464095500194638 51 67 83 0.45091366785126913 40 4840 39 2972 41 4983
9381 -0.13750966064458922 0.61141482186463114 0.21701739986303425 88 118 151 0.40211255352869057 35 745 40 3064 39 2983 41 4990 45 5459
9382 0.027526390548211987 0.75320871177516213 0.23511150950518367 34 35 39 1.3064975567639996 40 4863 39 2990 38 899
9383 0.11674497982290566 0.81637096159762224 0.17353698844011578 84 95 113 0.68726512085593772 35 958 40 3096 39 2991 41 5003 73 1676 74 2341 75 1917 71 1529 45 408 70 1327 69 1450 68 1469 66 872 65 763 64 1373 63 1080 62 975 60 908 2 315
9384 0.30143830873176475 1.0638941070718619 0.21985002376164386 45 55 72 0.6262008522129775 40 4879 39 3011 45 5493 38 607
9385 -0.20661132607247445 1.0966026426032875 0.25919142978066823 19 20 12 0.57093747610627898 40 6660 39 3016 41 6588
9386 -0.003134329253064283 1.4006127816676912 0.35981650147412109 47 84 113 0.97901158930516774 40 4938 39 3060 41 3466 45 5554 77 1821 32 1681
9388 0.019520551935450547 1.4117217301327327 0.38330473188996345 98 131 156 0.84799706494312088 40 4947 39 3066 41 5103 45 5566 73 2527 75 2010 31 252 78 1679 71 1589 70 1647
9390 -0.45307973711377753 1.635209738187134 0.15697217167559846 87 117 146 0.48943637494739983 40 6126 39 3079 41 5135 45 5603
9391 -0.71926481833364608 1.6665505874373541 0.12875673620514216 189 158 112 0.64511628317386749 40 5002 39 3086 41 5151
9392 -0.75466348357089252 1.6926387575681181 0.10427782997587021 220 190 147 0.61318273537101409 37 1245 40 5009 39 3087
9393 -0.39657676493882282 1.6308068055740699 0.23207526695638198 91 126 158 0.91962879225160188 40 6142 39 3093 41 5164
9394 -0.96797300079097681 1.6807022221644385 0.12090644790759231 193 161 111 0.24539873862455719 33 1386 35 1246 39 3103
9395 0.35612169578396574 1.697519107415302 0.33204700284250149 191 160 105 0.31808375774974612 40 5039 39 3110 38 932
9396 -0.6169617286751965 1.6457859661256491 0.25324257046260529 233 202 156 0.48074260266797192 40 5065 39 3116 45 5653
9397 -0.4815677660714639 1.6352744368575245 0.3307719583447904 234 201 147 0.424690041233033 40 5090 39 3133 41 5223 45 5677
9398 -0.78628050775322555 1.6476146730012502 0.27617812734495623 190 157 106 0.72318482360724257 31 1414 32 1484 39 3134
9399 0.77558435736045506 1.6329937130750534 0.5352121224905928 225 193 145 0.43014763343982831 40 5075 39 3137 41 3837 45 1212
9400 -0.49032730369111327 1.6275865182003684 0.34799437059119381 183 150 97 0.62084352033785672 34 990 40 5106 39 3139 45 4030
9401 0.36063404055419163 1.6053778394094276 0.53467706596743891 189 158 101 0.56104765364745979 40 5112 39 3147 41 1527
9402 -0.37018039171819939 1.6275398768016498 0.41548905478740444 206 167 105 0.99170721110159354 37 921 40 5126 39 3154 41 3865 38 1220 71 1161
9403 -0.9399846172570534 1.6443600797419979 0.33156689554225133 239 209 158 0.62383188611686713 37 1293 39 3163 41 3884 40 3521 45 4085
9404 -0.36090958521724092 1.6173248660779127 0.45878036390351623 222 188 130 0.15282035940581815 40 6186 39 3170 45 5704
9405 -0.56050398176751592 1.6230717122498246 0.43689417248864054 234 200 139 0.19262340302458997 40 5176 39 3173 41 3940 45 4144
9406 0.37913252897370536 1.5925227853479011 0.61643630721208176 174 143 90 1.5876978156420005 40 5156 39 3175 74 2546 73 2004
9407 0.37913252897370536 1.5925227853479011 0.61643630721208176 174 143 90 1.5876978156420005 40 5157 39 3176 74 2547 73 2005
9408 0.072471221363480109 1.6076284876476894 0.55411590591853055 230 197 143 0.25815143252963274 40 6192 39 3177 45 5715
9409 0.5963243567690597 1.6110001484644516 0.63992981651950531 221 187 133 0.50952511366850373 40 5164 39 3182 41 5308 45 4207
9410 -0.57776861205709196 1.6120426348479655 0.45531379950995304 181 152 92 0.1862537599997626 40 5192 39 3186 41 3954 45 4157 38 979
9411 0.032043787794902301 1.6260985912628636 0.54030565277474407 193 159 100 0.94881693950098966 40 5178 39 3187 38 959
9412 0.027443217619079974 1.6159138858729207 0.54850240257234972 193 159 100 0.56796432101872518 40 5179 39 3188 45 4185
9413 -0.04655460141904505 1.6225044682852736 0.53072572159206866 230 199 152 0.24442611037365172 40 5181 39 3189 41 3975
9414 -0.47973954382593087 1.6042757906120118 0.48299208250284337 233 198 139 0.48146406525945362 40 5193 39 3191 41 5288 45 5713
9415 0.094947328050774382 1.5944211334843872 0.60304063435373956 185 148 84 1.3267804762604687 40 5200 39 3200 73 2075 74 2586 37 1272
9416 -0.92466284670399457 1.6262424713486494 0.41685358591062566 241 208 163 0.43104248624972968 35 1084 40 3638 39 3201 41 3989 45 4187
9417 -0.72760559067803532 1.6129873823602008 0.4617557012320887 209 177 130 0.23793682491170076 40 5226 39 3202 45 4199
9418 -0.56090222674459178 1.6053378923965425 0.50407299083198165 227 196 141 0.35239549104055429 40 5229 39 3206 45 4220
9419 -0.38555683416183723 1.5909547724194477 0.56308798383153991 226 193 140 1.5580229204627001 40 5241 39 3217 45 4248 73 2241
9420 0.85597875388265376 1.557340109713395 0.81661696460033228 194 165 115 1.3390350769128005 40 5239 39 3230 41 4142 45 4337 74 1959 78 1788
9421 -0.79359245646095478 1.5928836375290167 0.53948310540872679 193 160 107 0.47368498065581471 40 3761 39 3240 45 4307
9422 0.025968942400733275 1.5872400736121379 0.67603657495816161 183 150 80 0.17223865902740576 40 5258 39 3242 41 4143 45 4334
9423 0.025968942400733275 1.5872400736121379 0.67603657495816161 183 150 80 0.17223865902740576 40 5259 39 3243 41 4144 45 4335
9424 -0.32563365454993531 1.5802734396263052 0.62831469756285885 225 192 138 1.0776648321955651 40 5267 39 3244 41 5372 45 4322 73 2262
9425 -0.34223888803859914 1.5934202556988077 0.61369217040886492 227 196 139 0.57652814573587485 37 1304 40 5269 39 3247 41 4134 45 4324
9426 -0.24267203421079439 1.5912251240726938 0.63337728564641127 225 190 132 0.59499946479609522 40 6232 39 3248 41 5373 45 5775 38 1255
9427 -0.17910298628530752 1.5805679800218826 0.65717993344114833 193 163 108 0.63239086142374534 40 3749 39 3250 41 4148 45 1757
9428 0.031750134538818864 1.6204323920794856 0.65854632442621797 225 187 124 0.55773992970455177 40 5268 39 3252 41 4160
9429 -0.32877513733896641 1.5810631946822549 0.63711492146909676 200 165 107 0.41159077488197954 40 3771 39 3253 41 4149 45 1752
9430 -0.59006539743832276 1.5922778637514992 0.59506393265696444 180 154 97 0.19534006166975715 40 5306 39 3256 41 4156
9431 0.64339351983630655 1.5915894885109332 0.7994805658639812 180 151 104 0.76157236890082514 40 6233 39 3259 45 5802
9432 0.64339351983630655 1.5915894885109332 0.7994805658639812 180 151 104 0.76157236890082514 40 6234 39 3260 45 5803
9433 -0.60068806033207767 1.5883643698380181 0.60478517682273725 239 205 159 0.28903011620710439 40 5314 39 3261 41 5381 45 4347
9434 -0.81884385693276895 1.5870950338417429 0.57458601997699321 216 182 134 0.40681765004348525 40 5323 39 3266 45 4345
9435 0.55560015095195991 1.5861610895744058 0.79647021288536668 178 150 102 0.42486861816752197 40 5289 39 3269 41 4215 45 5808
9436 0.50313627281233297 1.5774638403004122 0.80402282137272629 190 161 109 0.45260864323846589 40 5303 39 3271 41 4230 45 1956
9437 0.10454015897937574 1.5701160113540797 0.75839395720692626 201 168 110 0.29215333176498959 40 5327 39 3278 45 4407
